# .PCD v0.7 - Point Cloud Data file format
VERSION 0.7
FIELDS x y z
SIZE 4 4 4
TYPE F F F
COUNT 1 1 1
WIDTH 1334
HEIGHT 1
VIEWPOINT 0 0 0 1 0 0 0
POINTS 1334
DATA ascii
-0.12983869 -0.088120349 0.69100004
-0.12851033 -0.088120349 0.69100004
-0.12755007 -0.088375397 0.69300002
-0.12621786 -0.088375397 0.69300002
-0.12524608 -0.088630453 0.69500005
-0.12391002 -0.088630453 0.69500005
-0.12275033 -0.088757977 0.69600004
-0.12176124 -0.089013033 0.69800001
-0.16171947 -0.086790971 0.69100004
-0.16039111 -0.086790971 0.69100004
-0.15883255 -0.08666537 0.69000006
-0.15727784 -0.086539768 0.68900001
-0.15617967 -0.08666537 0.69000006
-0.1546288 -0.086539768 0.68900001
-0.15330428 -0.086539768 0.68900001
-0.15197976 -0.086539768 0.68900001
-0.15065522 -0.086539768 0.68900001
-0.14933071 -0.086539768 0.68900001
-0.14800619 -0.086539768 0.68900001
-0.14689456 -0.08666537 0.69000006
-0.14577909 -0.086790971 0.69100004
-0.14507785 -0.087167785 0.69400001
-0.14374371 -0.087167785 0.69400001
-0.14220439 -0.087042175 0.69300002
-0.1406689 -0.086916573 0.69200003
-0.13933861 -0.086916573 0.69200003
-0.13800833 -0.086916573 0.69200003
-0.13667803 -0.086916573 0.69200003
-0.13534774 -0.086916573 0.69200003
-0.13401745 -0.086916573 0.69200003
-0.13268717 -0.086916573 0.69200003
-0.13135688 -0.086916573 0.69200003
-0.13021448 -0.087042175 0.69300002
-0.12888227 -0.087042175 0.69300002
-0.12791818 -0.087293379 0.69500005
-0.12658213 -0.087293379 0.69500005
-0.12560649 -0.087544583 0.69700003
-0.12444488 -0.087670192 0.69800001
-0.12310306 -0.087670192 0.69800001
-0.12211012 -0.087921396 0.70000005
-0.16171947 -0.085461594 0.69100004
-0.16039111 -0.085461594 0.69100004
-0.15906274 -0.085461594 0.69100004
-0.15796264 -0.085585274 0.69200003
-0.15663235 -0.085585274 0.69200003
-0.15507764 -0.085461594 0.69100004
-0.15374927 -0.085461594 0.69100004
-0.15242091 -0.085461594 0.69100004
-0.15109254 -0.085461594 0.69100004
-0.14976418 -0.085461594 0.69100004
-0.14865062 -0.085585274 0.69200003
-0.14732033 -0.085585274 0.69200003
-0.14620101 -0.085708953 0.69300002
-0.14507785 -0.085832633 0.69400001
-0.14374371 -0.085832633 0.69400001
-0.14240958 -0.085832633 0.69400001
-0.14087217 -0.085708953 0.69300002
-0.13953996 -0.085708953 0.69300002
-0.13820775 -0.085708953 0.69300002
-0.13687554 -0.085708953 0.69300002
-0.13573892 -0.085832633 0.69400001
-0.13440478 -0.085832633 0.69400001
-0.13307065 -0.085832633 0.69400001
-0.13173652 -0.085832633 0.69400001
-0.13040239 -0.085832633 0.69400001
-0.12925425 -0.085956305 0.69500005
-0.12791818 -0.085956305 0.69500005
-0.12676427 -0.086079992 0.69600004
-0.12560649 -0.086203665 0.69700003
-0.12444488 -0.086327344 0.69800001
-0.12327942 -0.086451024 0.69900006
-0.12245901 -0.086822063 0.70200002
-0.16281188 -0.084010467 0.69000006
-0.16171947 -0.084132217 0.69100004
-0.16039111 -0.084132217 0.69100004
-0.15906274 -0.084132217 0.69100004
-0.15796264 -0.084253974 0.69200003
-0.15663235 -0.084253974 0.69200003
-0.15530206 -0.084253974 0.69200003
-0.15397178 -0.084253974 0.69200003
-0.15264149 -0.084253974 0.69200003
-0.1513112 -0.084253974 0.69200003
-0.15019764 -0.084375732 0.69300002
-0.14886543 -0.084375732 0.69300002
-0.14753322 -0.084375732 0.69300002
-0.14620101 -0.084375732 0.69300002
-0.14507785 -0.084497489 0.69400001
-0.14374371 -0.084497489 0.69400001
-0.14240958 -0.084497489 0.69400001
-0.14107545 -0.084497489 0.69400001
-0.13974132 -0.084497489 0.69400001
-0.13840719 -0.084497489 0.69400001
-0.13727057 -0.084619239 0.69500005
-0.13593452 -0.084619239 0.69500005
-0.13459846 -0.084619239 0.69500005
-0.13345416 -0.084740996 0.69600004
-0.13173652 -0.084497489 0.69400001
-0.13040239 -0.084497489 0.69400001
-0.12944022 -0.084740996 0.69600004
-0.12810224 -0.084740996 0.69600004
-0.12694639 -0.084862746 0.69700003
-0.12578671 -0.084984504 0.69800001
-0.12462316 -0.085106254 0.69900006
-0.12327942 -0.085106254 0.69900006
-0.1632838 -0.082922675 0.69200003
-0.16195351 -0.082922675 0.69200003
-0.16062321 -0.082922675 0.69200003
-0.15929292 -0.082922675 0.69200003
-0.15819091 -0.083042502 0.69300002
-0.1568587 -0.083042502 0.69300002
-0.15552649 -0.083042502 0.69300002
-0.15419428 -0.083042502 0.69300002
-0.15308264 -0.083162338 0.69400001
-0.15174851 -0.083162338 0.69400001
-0.15041438 -0.083162338 0.69400001
-0.14908025 -0.083162338 0.69400001
-0.14795902 -0.083282165 0.69500005
-0.14662296 -0.083282165 0.69500005
-0.1452869 -0.083282165 0.69500005
-0.14415798 -0.083402 0.69600004
-0.14282 -0.083402 0.69600004
-0.14148201 -0.083402 0.69600004
-0.14014404 -0.083402 0.69600004
-0.13880606 -0.083402 0.69600004
-0.13746808 -0.083402 0.69600004
-0.13593452 -0.083282165 0.69500005
-0.13459846 -0.083282165 0.69500005
-0.13345416 -0.083402 0.69600004
-0.13230599 -0.083521828 0.69700003
-0.1309661 -0.083521828 0.69700003
-0.1296262 -0.083521828 0.69700003
-0.1282863 -0.083521828 0.69700003
-0.12694639 -0.083521828 0.69700003
-0.12578671 -0.083641663 0.69800001
-0.12462316 -0.083761491 0.69900006
-0.12363216 -0.084001154 0.70100003
-0.16351976 -0.081709281 0.69300002
-0.16242157 -0.081827193 0.69400001
-0.16108744 -0.081827193 0.69400001
-0.15975331 -0.081827193 0.69400001
-0.15819091 -0.081709281 0.69300002
-0.1568587 -0.081709281 0.69300002
-0.15552649 -0.081709281 0.69300002
-0.15441677 -0.081827193 0.69400001
-0.15308264 -0.081827193 0.69400001
-0.15174851 -0.081827193 0.69400001
-0.15041438 -0.081827193 0.69400001
-0.14929508 -0.081945099 0.69500005
-0.14795902 -0.081945099 0.69500005
-0.14683393 -0.082063004 0.69600004
-0.14549595 -0.082063004 0.69600004
-0.14395085 -0.081945099 0.69500005
-0.14282 -0.082063004 0.69600004
-0.14148201 -0.082063004 0.69600004
-0.14034539 -0.08218091 0.69700003
-0.13880606 -0.082063004 0.69600004
-0.13746808 -0.082063004 0.69600004
-0.1363257 -0.08218091 0.69700003
-0.13498579 -0.08218091 0.69700003
-0.13364589 -0.08218091 0.69700003
-0.13230599 -0.08218091 0.69700003
-0.1309661 -0.08218091 0.69700003
-0.1296262 -0.08218091 0.69700003
-0.1282863 -0.08218091 0.69700003
-0.12712853 -0.082298823 0.69800001
-0.12614712 -0.082534634 0.70000005
-0.12497975 -0.082652539 0.70100003
-0.16288966 -0.080724008 0.69600004
-0.16155168 -0.080724008 0.69600004
-0.16021371 -0.080724008 0.69600004
-0.15864746 -0.080608025 0.69500005
-0.15731139 -0.080608025 0.69500005
-0.15597534 -0.080608025 0.69500005
-0.15463929 -0.080608025 0.69500005
-0.15330324 -0.080608025 0.69500005
-0.15196718 -0.080608025 0.69500005
-0.15084787 -0.080724008 0.69600004
-0.14972469 -0.080839992 0.69700003
-0.14838479 -0.080839992 0.69700003
-0.14725587 -0.080955975 0.69800001
-0.145705 -0.080839992 0.69700003
-0.14395085 -0.080608025 0.69500005
-0.14282 -0.080724008 0.69600004
-0.14148201 -0.080724008 0.69600004
-0.14034539 -0.080839992 0.69700003
-0.1390055 -0.080839992 0.69700003
-0.1376656 -0.080839992 0.69700003
-0.1363257 -0.080839992 0.69700003
-0.13498579 -0.080839992 0.69700003
-0.13364589 -0.080839992 0.69700003
-0.13230599 -0.080839992 0.69700003
-0.1309661 -0.080839992 0.69700003
-0.1296262 -0.080839992 0.69700003
-0.1282863 -0.080839992 0.69700003
-0.12712853 -0.080955975 0.69800001
-0.12614712 -0.081187941 0.70000005
-0.12497975 -0.081303924 0.70100003
-0.16224802 -0.079727188 0.69900006
-0.16090427 -0.079727188 0.69900006
-0.15956053 -0.079727188 0.69900006
-0.15821679 -0.079727188 0.69900006
-0.15687303 -0.079727188 0.69900006
-0.1553068 -0.079613134 0.69800001
-0.15396497 -0.079613134 0.69800001
-0.15240449 -0.079499073 0.69700003
-0.15128133 -0.079613134 0.69800001
-0.14972469 -0.079499073 0.69700003
-0.14838479 -0.079499073 0.69700003
-0.14725587 -0.079613134 0.69800001
-0.145705 -0.079499073 0.69700003
-0.14436509 -0.079499073 0.69700003
-0.14302519 -0.079499073 0.69700003
-0.14168529 -0.079499073 0.69700003
-0.14054675 -0.079613134 0.69800001
-0.13920493 -0.079613134 0.69800001
-0.1378631 -0.079613134 0.69800001
-0.13671687 -0.079727188 0.69900006
-0.13537313 -0.079727188 0.69900006
-0.13402937 -0.079727188 0.69900006
-0.13249582 -0.079613134 0.69800001
-0.131154 -0.079613134 0.69800001
-0.12981217 -0.079613134 0.69800001
-0.12847035 -0.079613134 0.69800001
-0.12731066 -0.079727188 0.69900006
-0.12614712 -0.079841256 0.70000005
-0.12497975 -0.07995531 0.70100003
-0.16224802 -0.078382425 0.69900006
-0.16090427 -0.078382425 0.69900006
-0.15956053 -0.078382425 0.69900006
-0.15821679 -0.078382425 0.69900006
-0.15687303 -0.078382425 0.69900006
-0.1553068 -0.078270294 0.69800001
-0.15396497 -0.078270294 0.69800001
-0.15240449 -0.078158155 0.69700003
-0.15128133 -0.078270294 0.69800001
-0.15015432 -0.078382425 0.69900006
-0.14902346 -0.078494564 0.70000005
-0.14767779 -0.078494564 0.70000005
-0.14633213 -0.078494564 0.70000005
-0.14498647 -0.078494564 0.70000005
-0.1434356 -0.078382425 0.69900006
-0.14209186 -0.078382425 0.69900006
-0.14094946 -0.078494564 0.70000005
-0.13960379 -0.078494564 0.70000005
-0.13825813 -0.078494564 0.70000005
-0.13691245 -0.078494564 0.70000005
-0.13576046 -0.078606695 0.70100003
-0.13441287 -0.078606695 0.70100003
-0.13287546 -0.078494564 0.70000005
-0.13152979 -0.078494564 0.70000005
-0.13018413 -0.078494564 0.70000005
-0.12883845 -0.078494564 0.70000005
-0.12749279 -0.078494564 0.70000005
-0.12632734 -0.078606695 0.70100003
-0.12497975 -0.078606695 0.70100003
-0.16090427 -0.077037655 0.69900006
-0.15956053 -0.077037655 0.69900006
-0.15821679 -0.077037655 0.69900006
-0.15687303 -0.077037655 0.69900006
-0.1553068 -0.076927446 0.69800001
-0.15396497 -0.076927446 0.69800001
-0.15240449 -0.076817237 0.69700003
-0.15128133 -0.076927446 0.69800001
-0.15015432 -0.077037655 0.69900006
-0.14881057 -0.077037655 0.69900006
-0.14767779 -0.077147871 0.70000005
-0.14612308 -0.077037655 0.69900006
-0.14457221 -0.076927446 0.69800001
-0.14323039 -0.076927446 0.69800001
-0.14188857 -0.076927446 0.69800001
-0.1407481 -0.077037655 0.69900006
-0.13940436 -0.077037655 0.69900006
-0.13806061 -0.077037655 0.69900006
-0.13691245 -0.077147871 0.70000005
-0.13556679 -0.077147871 0.70000005
-0.13422112 -0.077147871 0.70000005
-0.13268563 -0.077037655 0.69900006
-0.13134189 -0.077037655 0.69900006
-0.12999815 -0.077037655 0.69900006
-0.12865441 -0.077037655 0.69900006
-0.12731066 -0.077037655 0.69900006
-0.12614712 -0.077147871 0.70000005
-0.12462316 -0.077037655 0.69900006
-0.16136466 -0.075909466 0.70100003
-0.16001706 -0.075909466 0.70100003
-0.15866947 -0.075909466 0.70100003
-0.15732189 -0.075909466 0.70100003
-0.15575179 -0.075801179 0.70000005
-0.15440613 -0.075801179 0.70000005
-0.15284181 -0.075692892 0.69900006
-0.15171479 -0.075801179 0.70000005
-0.15036912 -0.075801179 0.70000005
-0.14902346 -0.075801179 0.70000005
-0.14767779 -0.075801179 0.70000005
-0.14633213 -0.075801179 0.70000005
-0.14498647 -0.075801179 0.70000005
-0.1434356 -0.075692892 0.69900006
-0.14229512 -0.075801179 0.70000005
-0.14115082 -0.075909466 0.70100003
-0.13980322 -0.075909466 0.70100003
-0.13845563 -0.075909466 0.70100003
-0.13710804 -0.075909466 0.70100003
-0.13576046 -0.075909466 0.70100003
-0.13441287 -0.075909466 0.70100003
-0.13287546 -0.075801179 0.70000005
-0.13171768 -0.075909466 0.70100003
-0.1303701 -0.075909466 0.70100003
-0.12902251 -0.075909466 0.70100003
-0.12749279 -0.075801179 0.70000005
-0.12596691 -0.075692892 0.69900006
-0.15912218 -0.07477358 0.70300001
-0.15777075 -0.07477358 0.70300001
-0.1561968 -0.074667215 0.70200002
-0.15484728 -0.074667215 0.70200002
-0.15327911 -0.074560851 0.70100003
-0.15193152 -0.074560851 0.70100003
-0.15058394 -0.074560851 0.70100003
-0.14923635 -0.074560851 0.70100003
-0.14788876 -0.074560851 0.70100003
-0.14654116 -0.074560851 0.70100003
-0.14519358 -0.074560851 0.70100003
-0.14384599 -0.074560851 0.70100003
-0.1424984 -0.074560851 0.70100003
-0.14135216 -0.074667215 0.70200002
-0.14000265 -0.074667215 0.70200002
-0.13865314 -0.074667215 0.70200002
-0.13730364 -0.074667215 0.70200002
-0.13576046 -0.074560851 0.70100003
-0.13441287 -0.074560851 0.70100003
-0.13306528 -0.074560851 0.70100003
-0.13190559 -0.074667215 0.70200002
-0.13074206 -0.07477358 0.70300001
-0.12939063 -0.07477358 0.70300001
-0.12767492 -0.074560851 0.70100003
-0.12614712 -0.074454494 0.70000005
-0.16047361 -0.073421121 0.70300001
-0.15912218 -0.073421121 0.70300001
-0.15754631 -0.073316678 0.70200002
-0.1559743 -0.073212236 0.70100003
-0.15462671 -0.073212236 0.70100003
-0.15306047 -0.073107801 0.70000005
-0.15171479 -0.073107801 0.70000005
-0.15036912 -0.073107801 0.70000005
-0.14902346 -0.073107801 0.70000005
-0.14767779 -0.073107801 0.70000005
-0.14654116 -0.073212236 0.70100003
-0.14519358 -0.073212236 0.70100003
-0.14384599 -0.073212236 0.70100003
-0.1424984 -0.073212236 0.70100003
-0.14115082 -0.073212236 0.70100003
-0.14000265 -0.073316678 0.70200002
-0.13865314 -0.073316678 0.70200002
-0.13710804 -0.073212236 0.70100003
-0.13576046 -0.073212236 0.70100003
-0.13441287 -0.073212236 0.70100003
-0.13306528 -0.073212236 0.70100003
-0.13171768 -0.073212236 0.70100003
-0.13055608 -0.073316678 0.70200002
-0.12920657 -0.073316678 0.70200002
-0.12767492 -0.073212236 0.70100003
-0.15934853 -0.072171174 0.70400006
-0.15777075 -0.072068654 0.70300001
-0.15641931 -0.072068654 0.70300001
-0.15484728 -0.071966141 0.70200002
-0.15349777 -0.071966141 0.70200002
-0.15236501 -0.072068654 0.70300001
-0.15101357 -0.072068654 0.70300001
-0.14966214 -0.072068654 0.70300001
-0.14852168 -0.072171174 0.70400006
-0.14716832 -0.072171174 0.70400006
-0.14581496 -0.072171174 0.70400006
-0.1444616 -0.072171174 0.70400006
-0.14310825 -0.072171174 0.70400006
-0.1417549 -0.072171174 0.70400006
-0.14040153 -0.072171174 0.70400006
-0.13904817 -0.072171174 0.70400006
-0.13769482 -0.072171174 0.70400006
-0.1361478 -0.072068654 0.70300001
-0.13479637 -0.072068654 0.70300001
-0.13344494 -0.072068654 0.70300001
-0.13228139 -0.072171174 0.70400006
-0.13092804 -0.072171174 0.70400006
-0.15821959 -0.070917375 0.70500004
-0.15664181 -0.070816793 0.70400006
-0.15528846 -0.070816793 0.70400006
-0.1539351 -0.070816793 0.70400006
-0.15279847 -0.070917375 0.70500004
-0.1514432 -0.070917375 0.70500004
-0.1503008 -0.071017966 0.70600003
-0.1489436 -0.071017966 0.70600003
-0.14758641 -0.071017966 0.70600003
-0.14622921 -0.071017966 0.70600003
-0.14487199 -0.071017966 0.70600003
-0.1435148 -0.071017966 0.70600003
-0.14195624 -0.070917375 0.70500004
-0.14060096 -0.070917375 0.70500004
-0.13924569 -0.070917375 0.70500004
-0.13808599 -0.071017966 0.70600003
-0.13672879 -0.071017966 0.70600003
-0.1353716 -0.071017966 0.70600003
-0.1340144 -0.071017966 0.70600003
-0.15821959 -0.069561072 0.70500004
-0.15686432 -0.069561072 0.70500004
-0.15528846 -0.069462404 0.70400006
-0.15415375 -0.069561072 0.70500004
-0.15279847 -0.069561072 0.70500004
-0.1514432 -0.069561072 0.70500004
-0.1503008 -0.069659732 0.70600003
-0.1489436 -0.069659732 0.70600003
-0.14779545 -0.069758408 0.70700002
-0.14643632 -0.069758408 0.70700002
-0.14487199 -0.069659732 0.70600003
-0.1435148 -0.069659732 0.70600003
-0.1421576 -0.069659732 0.70600003
-0.14060096 -0.069561072 0.70500004
-0.1394432 -0.069659732 0.70600003
-0.13828158 -0.069758408 0.70700002
-0.13692246 -0.069758408 0.70700002
-0.13556333 -0.069758408 0.70700002
-0.016211649 -0.0564382 0.57200003
-0.015138467 -0.056536868 0.57300001
-0.15572961 -0.068301499 0.70600003
-0.15437241 -0.068301499 0.70600003
-0.15323195 -0.068398245 0.70700002
-0.15187281 -0.068398245 0.70700002
-0.15051369 -0.068398245 0.70700002
-0.14936554 -0.06849499 0.708
-0.14800449 -0.06849499 0.708
-0.14664344 -0.06849499 0.708
-0.1452824 -0.06849499 0.708
-0.14392136 -0.06849499 0.708
-0.14235896 -0.068398245 0.70700002
-0.14099982 -0.068398245 0.70700002
-0.1396407 -0.068398245 0.70700002
-0.13847718 -0.06849499 0.708
-0.015112047 -0.055337761 0.57200003
-0.014036942 -0.055434506 0.57300001
-0.012957992 -0.055531248 0.574
-0.15459107 -0.067038089 0.70700002
-0.15208763 -0.067132905 0.708
-0.15072659 -0.067132905 0.708
-0.14936554 -0.067132905 0.708
-0.14685057 -0.067227729 0.70900005
-0.14548761 -0.067227729 0.70900005
-0.14392136 -0.067132905 0.708
-0.1425603 -0.067132905 0.708
-0.14119926 -0.067132905 0.708
-0.13983822 -0.067132905 0.708
-0.016183307 -0.054142501 0.57100004
-0.015059208 -0.054047681 0.57000005
-0.013963451 -0.054047681 0.57000005
-0.012867693 -0.054047681 0.57000005
-0.011771936 -0.054047681 0.57000005
-0.15072659 -0.065770827 0.708
-0.14936554 -0.065770827 0.708
-0.14800449 -0.065770827 0.708
-0.14664344 -0.065770827 0.708
-0.1452824 -0.065770827 0.708
-0.017280987 -0.053043988 0.57100004
-0.016126623 -0.052858192 0.56900001
-0.015032788 -0.052858192 0.56900001
-0.013914456 -0.052765299 0.56800002
-0.012822543 -0.052765299 0.56800002
-0.011751283 -0.052858192 0.56900001
-0.010713639 -0.053136885 0.57200003
-0.017280987 -0.051945474 0.57100004
-0.016154965 -0.051854499 0.57000005
-0.015059208 -0.051854499 0.57000005
-0.013914456 -0.051672556 0.56800002
-0.012845119 -0.051763527 0.56900001
-0.011771936 -0.051854499 0.57000005
-0.010694908 -0.051945474 0.57100004
-0.019408129 -0.050668862 0.56900001
-0.018282106 -0.050579812 0.56800002
-0.017190194 -0.050579812 0.56800002
-0.016069939 -0.050490763 0.56700003
-0.014979948 -0.050490763 0.56700003
-0.013889958 -0.050490763 0.56700003
-0.012799967 -0.050490763 0.56700003
-0.011709977 -0.050490763 0.56700003
-0.010657448 -0.050668862 0.56900001
-0.0095804203 -0.050757911 0.57000005
-0.02260988 -0.049399942 0.56700003
-0.02151989 -0.049399942 0.56700003
-0.020465933 -0.049487069 0.56800002
-0.019374019 -0.049487069 0.56800002
-0.01824992 -0.049399942 0.56700003
-0.017129665 -0.049312819 0.56600004
-0.016041597 -0.049312819 0.56600004
-0.014953529 -0.049312819 0.56600004
-0.013865461 -0.049312819 0.56600004
-0.012777393 -0.049312819 0.56600004
-0.011689325 -0.049312819 0.56600004
-0.010619987 -0.049399942 0.56700003
-0.0095468052 -0.049487069 0.56800002
-0.02260988 -0.048309125 0.56700003
-0.02151989 -0.048309125 0.56700003
-0.020465933 -0.048394326 0.56800002
-0.01933991 -0.048309125 0.56700003
-0.018217733 -0.048223924 0.56600004
-0.017099401 -0.048138727 0.565
-0.016013255 -0.048138727 0.565
-0.014953529 -0.048223924 0.56600004
-0.013865461 -0.048223924 0.56600004
-0.012777393 -0.048223924 0.56600004
-0.011689325 -0.048223924 0.56600004
-0.010601257 -0.048223924 0.56600004
-0.0095299967 -0.048309125 0.56700003
-0.02369987 -0.047218304 0.56700003
-0.022570005 -0.047135025 0.56600004
-0.021481937 -0.047135025 0.56600004
-0.020357838 -0.047051754 0.565
-0.019271692 -0.047051754 0.565
-0.01815336 -0.046968475 0.56400001
-0.017038872 -0.0468852 0.56300002
-0.015956571 -0.0468852 0.56300002
-0.014900689 -0.046968475 0.56400001
-0.013840963 -0.047051754 0.565
-0.012754817 -0.047051754 0.565
-0.011668673 -0.047051754 0.565
-0.010582527 -0.047051754 0.565
-0.0094963815 -0.047051754 0.565
-0.02474614 -0.04604613 0.56600004
-0.023658073 -0.04604613 0.56600004
-0.022530129 -0.045964781 0.565
-0.021443984 -0.045964781 0.565
-0.020321805 -0.045883428 0.56400001
-0.019203473 -0.045802075 0.56300002
-0.018088985 -0.045720719 0.56200004
-0.017008608 -0.045720719 0.56200004
-0.015956571 -0.045802075 0.56300002
-0.014900689 -0.045883428 0.56400001
-0.013816467 -0.045883428 0.56400001
-0.012732243 -0.045883428 0.56400001
-0.01164802 -0.045883428 0.56400001
-0.010563796 -0.045883428 0.56400001
-0.0095299967 -0.046127487 0.56700003
-0.0084400065 -0.046127487 0.56700003
-0.026827145 -0.044798382 0.56400001
-0.025742922 -0.044798382 0.56400001
-0.024658699 -0.044798382 0.56400001
-0.023574475 -0.044798382 0.56400001
-0.022490252 -0.044798382 0.56400001
-0.021368075 -0.044718951 0.56300002
-0.020285774 -0.044718951 0.56300002
-0.019169364 -0.04463952 0.56200004
-0.018056799 -0.04456009 0.56100005
-0.017008608 -0.04463952 0.56200004
-0.015928229 -0.04463952 0.56200004
-0.014874269 -0.044718951 0.56300002
-0.013816467 -0.044798382 0.56400001
-0.012732243 -0.044798382 0.56400001
-0.011606715 -0.04463952 0.56200004
-0.010526337 -0.04463952 0.56200004
-0.0095299967 -0.045036666 0.56700003
-0.0084400065 -0.045036666 0.56700003
-0.027812392 -0.043558322 0.56200004
-0.026779579 -0.043635827 0.56300002
-0.025651636 -0.043558322 0.56200004
-0.024571257 -0.043558322 0.56200004
-0.023490878 -0.043558322 0.56200004
-0.022370623 -0.043480814 0.56100005
-0.021292167 -0.043480814 0.56100005
-0.020177679 -0.043403309 0.56
-0.019101147 -0.043403309 0.56
-0.018024612 -0.043403309 0.56
-0.01694808 -0.043403309 0.56
-0.015871545 -0.043403309 0.56
-0.014821431 -0.043480814 0.56100005
-0.013767472 -0.043558322 0.56200004
-0.012687094 -0.043558322 0.56200004
-0.011586063 -0.043480814 0.56100005
-0.010507607 -0.043480814 0.56100005
-0.0094459578 -0.043558322 0.56200004
-0.02889277 -0.04247712 0.56200004
-0.027812392 -0.04247712 0.56200004
-0.026732013 -0.04247712 0.56200004
-0.025605991 -0.042401537 0.56100005
-0.024527535 -0.042401537 0.56100005
-0.02344908 -0.042401537 0.56100005
-0.022330748 -0.042325955 0.56
-0.021254214 -0.042325955 0.56
-0.020177679 -0.042325955 0.56
-0.019067036 -0.042250372 0.55900002
-0.017992424 -0.042250372 0.55900002
-0.016917814 -0.042250372 0.55900002
-0.015843201 -0.042250372 0.55900002
-0.014795011 -0.042325955 0.56
-0.013718477 -0.042325955 0.56
-0.012641944 -0.042325955 0.56
-0.011544758 -0.042250372 0.55900002
-0.010488876 -0.042325955 0.56
-0.0094291503 -0.042401537 0.56100005
-0.029866483 -0.041248605 0.56
-0.02884136 -0.041322261 0.56100005
-0.027762903 -0.041322261 0.56100005
-0.026636882 -0.041248605 0.56
-0.025560347 -0.041248605 0.56
-0.024483815 -0.041248605 0.56
-0.02340728 -0.041248605 0.56
-0.022330748 -0.041248605 0.56
-0.021254214 -0.041248605 0.56
-0.020177679 -0.041248605 0.56
-0.019067036 -0.041174944 0.55900002
-0.017992424 -0.041174944 0.55900002
-0.016917814 -0.041174944 0.55900002
-0.015843201 -0.041174944 0.55900002
-0.014795011 -0.041248605 0.56
-0.013718477 -0.041248605 0.56
-0.012641944 -0.041248605 0.56
-0.011544758 -0.041174944 0.55900002
-0.010488876 -0.041248605 0.56
-0.030887758 -0.040099517 0.55900002
-0.029813148 -0.040099517 0.55900002
-0.028738536 -0.040099517 0.55900002
-0.027663926 -0.040099517 0.55900002
-0.026589314 -0.040099517 0.55900002
-0.025514703 -0.040099517 0.55900002
-0.024440091 -0.040099517 0.55900002
-0.023365481 -0.040099517 0.55900002
-0.022250993 -0.040027782 0.55800003
-0.021178303 -0.040027782 0.55800003
-0.020069584 -0.039956048 0.55700004
-0.018964708 -0.039884314 0.55600005
-0.017895864 -0.039884314 0.55600005
-0.016887549 -0.040027782 0.55800003
-0.015814859 -0.040027782 0.55800003
-0.014742171 -0.040027782 0.55800003
-0.01369398 -0.040099517 0.55900002
-0.012619369 -0.040099517 0.55900002
-0.011524105 -0.040027782 0.55800003
-0.010488876 -0.040171251 0.56
-0.031962369 -0.039024089 0.55900002
-0.030832503 -0.038954277 0.55800003
-0.029653149 -0.038814656 0.55600005
-0.028584305 -0.038814656 0.55600005
-0.02751546 -0.038814656 0.55600005
-0.026494183 -0.038884468 0.55700004
-0.025469059 -0.038954277 0.55800003
-0.024396371 -0.038954277 0.55800003
-0.023323681 -0.038954277 0.55800003
-0.022211116 -0.038884468 0.55700004
-0.021178303 -0.038954277 0.55800003
-0.020069584 -0.038884468 0.55700004
-0.018964708 -0.038814656 0.55600005
-0.017895864 -0.038814656 0.55600005
-0.016827019 -0.038814656 0.55600005
-0.015786517 -0.038884468 0.55700004
-0.014715752 -0.038884468 0.55700004
-0.013644986 -0.038884468 0.55700004
-0.012574219 -0.038884468 0.55700004
-0.011503452 -0.038884468 0.55700004
-0.010470146 -0.039024089 0.55900002
-0.031962369 -0.037948661 0.55900002
-0.030832503 -0.037880775 0.55800003
-0.029653149 -0.037744999 0.55600005
-0.028584305 -0.037744999 0.55600005
-0.02751546 -0.037744999 0.55600005
-0.026494183 -0.037812889 0.55700004
-0.025469059 -0.037880775 0.55800003
-0.024396371 -0.037880775 0.55800003
-0.023323681 -0.037880775 0.55800003
-0.022211116 -0.037812889 0.55700004
-0.02114035 -0.037812889 0.55700004
-0.020033551 -0.037744999 0.55600005
-0.018930599 -0.037677113 0.55500001
-0.017863678 -0.037677113 0.55500001
-0.016796755 -0.037677113 0.55500001
-0.015758175 -0.037744999 0.55600005
-0.014689333 -0.037744999 0.55600005
-0.013620488 -0.037744999 0.55600005
-0.012551644 -0.037744999 0.55600005
-0.011503452 -0.037812889 0.55700004
-0.010488876 -0.038016547 0.56
-0.032918781 -0.036741305 0.55700004
-0.031848013 -0.036741305 0.55700004
-0.030721992 -0.036675341 0.55600005
-0.029546482 -0.036543418 0.55400002
-0.028430073 -0.036477454 0.55300003
-0.027416484 -0.036543418 0.55400002
-0.026351485 -0.036543418 0.55400002
-0.025332129 -0.036609381 0.55500001
-0.024308927 -0.036675341 0.55600005
-0.023240084 -0.036675341 0.55600005
-0.022131363 -0.036609381 0.55500001
-0.021064442 -0.036609381 0.55500001
-0.019961489 -0.036543418 0.55400002
-0.01886238 -0.036477454 0.55300003
-0.017799303 -0.036477454 0.55300003
-0.016736226 -0.036477454 0.55300003
-0.015673151 -0.036477454 0.55300003
-0.014636493 -0.036543418 0.55400002
-0.013571494 -0.036543418 0.55400002
-0.012551644 -0.036675341 0.55600005
-0.0114828 -0.036675341 0.55600005
-0.03380648 -0.035477608 0.55400002
-0.032741483 -0.035477608 0.55400002
-0.031676482 -0.035477608 0.55400002
-0.030556226 -0.035413567 0.55300003
-0.029439816 -0.035349529 0.55200005
-0.028327251 -0.035285491 0.551
-0.02726802 -0.035285491 0.551
-0.026256353 -0.035349529 0.55200005
-0.025240842 -0.035413567 0.55300003
-0.024177765 -0.035413567 0.55300003
-0.023114689 -0.035413567 0.55300003
-0.022051612 -0.035413567 0.55300003
-0.020988535 -0.035413567 0.55300003
-0.019889425 -0.035349529 0.55200005
-0.018828271 -0.035349529 0.55200005
-0.01773493 -0.035285491 0.551
-0.016675698 -0.035285491 0.551
-0.015616465 -0.035285491 0.551
-0.014557233 -0.035285491 0.551
-0.013498002 -0.035285491 0.551
-0.012506494 -0.035477608 0.55400002
-0.011441495 -0.035477608 0.55400002
-0.034871481 -0.034411799 0.55400002
-0.03380648 -0.034411799 0.55400002
-0.032682382 -0.034349684 0.55300003
-0.031619303 -0.034349684 0.55300003
-0.030500971 -0.034287568 0.55200005
-0.029439816 -0.034287568 0.55200005
-0.028378662 -0.034287568 0.55200005
-0.027317507 -0.034287568 0.55200005
-0.026256353 -0.034287568 0.55200005
-0.025240842 -0.034349684 0.55300003
-0.024177765 -0.034349684 0.55300003
-0.023114689 -0.034349684 0.55300003
-0.022051612 -0.034349684 0.55300003
-0.020988535 -0.034349684 0.55300003
-0.019925456 -0.034349684 0.55300003
-0.01886238 -0.034349684 0.55300003
-0.017767116 -0.034287568 0.55200005
-0.016705962 -0.034287568 0.55200005
-0.015616465 -0.034225453 0.551
-0.014583653 -0.034287568 0.55200005
-0.013522498 -0.034287568 0.55200005
-0.01252907 -0.034473915 0.55500001
-0.011462147 -0.034473915 0.55500001
-0.034682646 -0.033165414 0.551
-0.033623412 -0.033165414 0.551
-0.032564182 -0.033165414 0.551
-0.031447772 -0.033105224 0.55000001
-0.030445715 -0.033165414 0.551
-0.029386483 -0.033165414 0.551
-0.028327251 -0.033165414 0.551
-0.02726802 -0.033165414 0.551
-0.026208788 -0.033165414 0.551
-0.025195198 -0.033225607 0.55200005
-0.024134044 -0.033225607 0.55200005
-0.023072889 -0.033225607 0.55200005
-0.022011735 -0.033225607 0.55200005
-0.020988535 -0.033285797 0.55300003
-0.019889425 -0.033225607 0.55200005
-0.018828271 -0.033225607 0.55200005
-0.017767116 -0.033225607 0.55200005
-0.016675698 -0.033165414 0.551
-0.015588123 -0.033105224 0.55000001
-0.014557233 -0.033165414 0.551
-0.013498002 -0.033165414 0.551
-0.01252907 -0.033406179 0.55500001
-0.011462147 -0.033406179 0.55500001
-0.035677012 -0.032047112 0.55000001
-0.0346197 -0.032047112 0.55000001
-0.033562392 -0.032047112 0.55000001
-0.032445982 -0.031988841 0.54900002
-0.031390592 -0.031988841 0.54900002
-0.03039046 -0.032047112 0.55000001
-0.029333152 -0.032047112 0.55000001
-0.028275842 -0.032047112 0.55000001
-0.027218532 -0.032047112 0.55000001
-0.026161222 -0.032047112 0.55000001
-0.025103912 -0.032047112 0.55000001
-0.024090324 -0.032105379 0.551
-0.023031091 -0.032105379 0.551
-0.021971859 -0.032105379 0.551
-0.020912627 -0.032105379 0.551
-0.019853394 -0.032105379 0.551
-0.018760053 -0.032047112 0.55000001
-0.017702743 -0.032047112 0.55000001
-0.016615169 -0.031988841 0.54900002
-0.015559781 -0.031988841 0.54900002
-0.014530814 -0.032047112 0.55000001
-0.013498002 -0.032105379 0.551
-0.01252907 -0.032338448 0.55500001
-0.011462147 -0.032338448 0.55500001
-0.035741877 -0.03104534 0.551
-0.034682646 -0.03104534 0.551
-0.033562392 -0.030988997 0.55000001
-0.032505084 -0.030988997 0.55000001
-0.031390592 -0.030932654 0.54900002
-0.03039046 -0.030988997 0.55000001
-0.029386483 -0.03104534 0.551
-0.028275842 -0.030988997 0.55000001
-0.027218532 -0.030988997 0.55000001
-0.026161222 -0.030988997 0.55000001
-0.025103912 -0.030988997 0.55000001
-0.024090324 -0.03104534 0.551
-0.023031091 -0.03104534 0.551
-0.021971859 -0.03104534 0.551
-0.020912627 -0.03104534 0.551
-0.019817363 -0.030988997 0.55000001
-0.018760053 -0.030988997 0.55000001
-0.017702743 -0.030988997 0.55000001
-0.016645433 -0.030988997 0.55000001
-0.015588123 -0.030988997 0.55000001
-0.014557233 -0.03104534 0.551
-0.013522498 -0.031101683 0.55200005
-0.012461344 -0.031101683 0.55200005
-0.011503452 -0.031383403 0.55700004
-0.036667529 -0.029876465 0.54900002
-0.035612144 -0.029876465 0.54900002
-0.034556754 -0.029876465 0.54900002
-0.033440348 -0.029822044 0.54800004
-0.03238688 -0.029822044 0.54800004
-0.031276237 -0.029767625 0.54700005
-0.030279949 -0.029822044 0.54800004
-0.029226486 -0.029822044 0.54800004
-0.02817302 -0.029822044 0.54800004
-0.027070066 -0.029767625 0.54700005
-0.026066091 -0.029822044 0.54800004
-0.025012625 -0.029822044 0.54800004
-0.02395916 -0.029822044 0.54800004
-0.022947494 -0.029876465 0.54900002
-0.021892106 -0.029876465 0.54900002
-0.020836718 -0.029876465 0.54900002
-0.0197453 -0.029822044 0.54800004
-0.018691834 -0.029822044 0.54800004
-0.017670557 -0.029876465 0.54900002
-0.016615169 -0.029876465 0.54900002
-0.015588123 -0.029930882 0.55000001
-0.014557233 -0.029985303 0.551
-0.013522498 -0.030039722 0.55200005
-0.012461344 -0.030039722 0.55200005
-0.036533952 -0.028715283 0.54700005
-0.035482407 -0.028715283 0.54700005
-0.034430865 -0.028715283 0.54700005
-0.033318304 -0.028662786 0.546
-0.032268681 -0.028662786 0.546
-0.031161882 -0.028610289 0.54500002
-0.030169439 -0.028662786 0.546
-0.029119819 -0.028662786 0.546
-0.028018788 -0.028610289 0.54500002
-0.026971091 -0.028610289 0.54500002
-0.025923392 -0.028610289 0.54500002
-0.024921339 -0.028662786 0.546
-0.023871718 -0.028662786 0.546
-0.022863897 -0.028715283 0.54700005
-0.021812353 -0.028715283 0.54700005
-0.020722857 -0.028662786 0.546
-0.019709269 -0.028715283 0.54700005
-0.018657725 -0.028715283 0.54700005
-0.017670557 -0.028820274 0.54900002
-0.016615169 -0.028820274 0.54900002
-0.015616465 -0.028925264 0.551
-0.014583653 -0.028977761 0.55200005
-0.013546997 -0.029030258 0.55300003
-0.01248392 -0.029030258 0.55300003
-0.035352673 -0.027561795 0.54500002
-0.034304976 -0.027561795 0.54500002
-0.033196252 -0.027511222 0.54400003
-0.032150477 -0.027511222 0.54400003
-0.031047527 -0.027460651 0.54300004
-0.030003674 -0.027460651 0.54300004
-0.029013153 -0.027511222 0.54400003
-0.027967378 -0.027511222 0.54400003
-0.026921602 -0.027511222 0.54400003
-0.025875827 -0.027511222 0.54400003
-0.024875695 -0.027561795 0.54500002
-0.023871718 -0.027612368 0.546
-0.022822097 -0.027612368 0.546
-0.021812353 -0.02766294 0.54700005
-0.020760812 -0.02766294 0.54700005
-0.0197453 -0.027713513 0.54800004
-0.018691834 -0.027713513 0.54800004
-0.01773493 -0.027865227 0.551
-0.016705962 -0.0279158 0.55200005
-0.015673151 -0.027966371 0.55300003
-0.014662913 -0.028067516 0.55500001
-0.013620488 -0.028118089 0.55600005
-0.012551644 -0.028118089 0.55600005
-0.033074208 -0.026367355 0.54200006
-0.032032277 -0.026367355 0.54200006
-0.030990349 -0.026367355 0.54200006
-0.029948419 -0.026367355 0.54200006
-0.028906487 -0.026367355 0.54200006
-0.027864557 -0.026367355 0.54200006
-0.026822627 -0.026367355 0.54200006
-0.025828261 -0.026416004 0.54300004
-0.024784409 -0.026416004 0.54300004
-0.023827996 -0.026513301 0.54500002
-0.022822097 -0.026561949 0.546
-0.021812353 -0.026610598 0.54700005
-0.020760812 -0.026610598 0.54700005
-0.0197453 -0.026659247 0.54800004
-0.018691834 -0.026659247 0.54800004
-0.01773493 -0.02680519 0.551
-0.016705962 -0.026853837 0.55200005
-0.015701493 -0.026951134 0.55400002
-0.014689333 -0.027048431 0.55600005
-0.013644986 -0.02709708 0.55700004
-0.012574219 -0.02709708 0.55700004
-0.033074208 -0.025324633 0.54200006
-0.031973179 -0.025277907 0.54100001
-0.030933172 -0.025277907 0.54100001
-0.029893164 -0.025277907 0.54100001
-0.028853154 -0.025277907 0.54100001
-0.027813146 -0.025277907 0.54100001
-0.026773138 -0.025277907 0.54100001
-0.025780695 -0.025324633 0.54200006
-0.024784409 -0.025371358 0.54300004
-0.023784276 -0.025418082 0.54400003
-0.022822097 -0.025511531 0.546
-0.021812353 -0.025558256 0.54700005
-0.020798765 -0.02560498 0.54800004
-0.0197453 -0.02560498 0.54800004
-0.018794162 -0.025745152 0.551
-0.017799303 -0.0258386 0.55300003
-0.01676649 -0.025885325 0.55400002
-0.015758175 -0.025978776 0.55600005
-0.014742171 -0.026072225 0.55800003
-0.013669482 -0.026072225 0.55800003
-0.012619369 -0.026118949 0.55900002
-0.034116138 -0.02428191 0.54200006
-0.033074208 -0.02428191 0.54200006
-0.032032277 -0.02428191 0.54200006
-0.030933172 -0.024237109 0.54100001
-0.029893164 -0.024237109 0.54100001
-0.028906487 -0.02428191 0.54200006
-0.027864557 -0.02428191 0.54200006
-0.026822627 -0.02428191 0.54200006
-0.025828261 -0.02432671 0.54300004
-0.024784409 -0.02432671 0.54300004
-0.023784276 -0.02437151 0.54400003
-0.022822097 -0.024461113 0.546
-0.021852231 -0.024550714 0.54800004
-0.020798765 -0.024550714 0.54800004
-0.019817363 -0.024640314 0.55000001
-0.01886238 -0.024774715 0.55300003
-0.017895864 -0.024909118 0.55600005
-0.016857283 -0.024953919 0.55700004
-0.015814859 -0.024998719 0.55800003
-0.014742171 -0.024998719 0.55800003
-0.013718477 -0.025088321 0.56
-0.012687094 -0.02517792 0.56200004
-0.034053195 -0.02319631 0.54100001
-0.033013187 -0.02319631 0.54100001
-0.031973179 -0.02319631 0.54100001
-0.030933172 -0.02319631 0.54100001
-0.029893164 -0.02319631 0.54100001
-0.028906487 -0.023239186 0.54200006
-0.027864557 -0.023239186 0.54200006
-0.026822627 -0.023239186 0.54200006
-0.025828261 -0.023282064 0.54300004
-0.024784409 -0.023282064 0.54300004
-0.023784276 -0.02332494 0.54400003
-0.022822097 -0.023410695 0.546
-0.021852231 -0.023496447 0.54800004
-0.020836718 -0.023539325 0.54900002
-0.019781331 -0.023539325 0.54900002
-0.018828271 -0.023667954 0.55200005
-0.017863678 -0.023796584 0.55500001
-0.016827019 -0.023839461 0.55600005
-0.015814859 -0.023925215 0.55800003
-0.014742171 -0.023925215 0.55800003
-0.013718477 -0.024010969 0.56
-0.012687094 -0.02409672 0.56200004
-0.034053195 -0.02215551 0.54100001
-0.033074208 -0.022196464 0.54200006
-0.032032277 -0.022196464 0.54200006
-0.030990349 -0.022196464 0.54200006
-0.030003674 -0.022237416 0.54300004
-0.029013153 -0.02227837 0.54400003
-0.028018788 -0.022319322 0.54500002
-0.026971091 -0.022319322 0.54500002
-0.025923392 -0.022319322 0.54500002
-0.024875695 -0.022319322 0.54500002
-0.023827996 -0.022319322 0.54500002
-0.022822097 -0.022360276 0.546
-0.021852231 -0.022442183 0.54800004
-0.020836718 -0.022483135 0.54900002
-0.019781331 -0.022483135 0.54900002
-0.01886238 -0.022646945 0.55300003
-0.017928051 -0.022810757 0.55700004
-0.016887549 -0.022851711 0.55800003
-0.015814859 -0.022851711 0.55800003
-0.014795011 -0.022933617 0.56
-0.013791969 -0.023056474 0.56300002
-0.012754817 -0.02313838 0.565
-0.035093203 -0.021114711 0.54100001
-0.034116138 -0.021153741 0.54200006
-0.033074208 -0.021153741 0.54200006
-0.032032277 -0.021153741 0.54200006
-0.030990349 -0.021153741 0.54200006
-0.03005893 -0.021231798 0.54400003
-0.029119819 -0.021309856 0.546
-0.028121609 -0.021348886 0.54700005
-0.027070066 -0.021348886 0.54700005
-0.026018525 -0.021348886 0.54700005
-0.024966981 -0.021348886 0.54700005
-0.023871718 -0.021309856 0.546
-0.022863897 -0.021348886 0.54700005
-0.021892106 -0.021426944 0.54900002
-0.020836718 -0.021426944 0.54900002
-0.019817363 -0.021465972 0.55000001
-0.01886238 -0.02158306 0.55300003
-0.017928051 -0.021739177 0.55700004
-0.016887549 -0.021778205 0.55800003
-0.015814859 -0.021778205 0.55800003
-0.014821431 -0.021895291 0.56100005
-0.013840963 -0.022051409 0.565
-0.012799967 -0.022129467 0.56700003
-0.011709977 -0.022129467 0.56700003
-0.034053195 -0.020073911 0.54100001
-0.033013187 -0.020073911 0.54100001
-0.032032277 -0.020111017 0.54200006
-0.030990349 -0.020111017 0.54200006
-0.03005893 -0.020185228 0.54400003
-0.029119819 -0.020259438 0.546
-0.028121609 -0.020296544 0.54700005
-0.027070066 -0.020296544 0.54700005
-0.026018525 -0.020296544 0.54700005
-0.024966981 -0.020296544 0.54700005
-0.023915438 -0.020296544 0.54700005
-0.022863897 -0.020296544 0.54700005
-0.021892106 -0.020370755 0.54900002
-0.020836718 -0.020370755 0.54900002
-0.019817363 -0.020407859 0.55000001
-0.01886238 -0.020519175 0.55300003
-0.017895864 -0.02063049 0.55600005
-0.016887549 -0.020704702 0.55800003
-0.015814859 -0.020704702 0.55800003
-0.014821431 -0.020816015 0.56100005
-0.013816467 -0.020927332 0.56400001
-0.012799967 -0.021038648 0.56700003
-0.011709977 -0.021038648 0.56700003
-0.040591162 -0.019173838 0.54500002
-0.039543465 -0.019173838 0.54500002
-0.038495768 -0.019173838 0.54500002
-0.037448071 -0.019173838 0.54500002
-0.03640037 -0.019173838 0.54500002
-0.03522294 -0.019103475 0.54300004
-0.034179088 -0.019103475 0.54300004
-0.033135232 -0.019103475 0.54300004
-0.032091379 -0.019103475 0.54300004
-0.031104704 -0.019138657 0.54400003
-0.030169439 -0.01920902 0.546
-0.029226486 -0.019279383 0.54800004
-0.028224431 -0.019314565 0.54900002
-0.027169043 -0.019314565 0.54900002
-0.026113655 -0.019314565 0.54900002
-0.025058268 -0.019314565 0.54900002
-0.024002882 -0.019314565 0.54900002
-0.022989292 -0.019349745 0.55000001
-0.021931982 -0.019349745 0.55000001
-0.02095058 -0.019420108 0.55200005
-0.019889425 -0.019420108 0.55200005
-0.018930599 -0.019525653 0.55500001
-0.017992424 -0.019666379 0.55900002
-0.016917814 -0.019666379 0.55900002
-0.015871545 -0.019701559 0.56
-0.014874269 -0.019807102 0.56300002
-0.013865461 -0.019912647 0.56600004
-0.012822543 -0.01998301 0.56800002
-0.011730631 -0.01998301 0.56800002
-0.042921532 -0.018225117 0.54800004
-0.041715264 -0.018158602 0.546
-0.040665645 -0.018158602 0.546
-0.039616022 -0.018158602 0.546
-0.038566403 -0.018158602 0.546
-0.037585493 -0.018191859 0.54700005
-0.036533952 -0.018191859 0.54700005
-0.035482407 -0.018191859 0.54700005
-0.034367923 -0.018158602 0.546
-0.03325728 -0.018125344 0.54500002
-0.032209579 -0.018125344 0.54500002
-0.031161882 -0.018125344 0.54500002
-0.030224694 -0.018191859 0.54700005
-0.029279819 -0.018258374 0.54900002
-0.028275842 -0.018291632 0.55000001
-0.02726802 -0.018324889 0.551
-0.026161222 -0.018291632 0.55000001
-0.025103912 -0.018291632 0.55000001
-0.024046602 -0.018291632 0.55000001
-0.022989292 -0.018291632 0.55000001
-0.021971859 -0.018324889 0.551
-0.021026488 -0.018424662 0.55400002
-0.01999752 -0.018457919 0.55500001
-0.019032925 -0.018557692 0.55800003
-0.017960237 -0.018557692 0.55800003
-0.016978344 -0.018657463 0.56100005
-0.015928229 -0.018690722 0.56200004
-0.014927109 -0.018790495 0.565
-0.013914456 -0.018890267 0.56800002
-0.012845119 -0.018923525 0.56900001
-0.011751283 -0.018923525 0.56900001
-0.045110628 -0.017202185 0.54900002
-0.042764883 -0.017108183 0.546
-0.041638862 -0.01707685 0.54500002
-0.040591162 -0.01707685 0.54500002
-0.039543465 -0.01707685 0.54500002
-0.038495768 -0.01707685 0.54500002
-0.037516784 -0.017108183 0.546
-0.036533952 -0.017139517 0.54700005
-0.035547279 -0.017170852 0.54800004
-0.034430865 -0.017139517 0.54700005
-0.033379324 -0.017139517 0.54700005
-0.032268681 -0.017108183 0.546
-0.03121906 -0.017108183 0.546
-0.030279949 -0.017170852 0.54800004
-0.029333152 -0.017233517 0.55000001
-0.028275842 -0.017233517 0.55000001
-0.02726802 -0.01726485 0.551
-0.026208788 -0.01726485 0.551
-0.025195198 -0.017296186 0.55200005
-0.024090324 -0.01726485 0.551
-0.023031091 -0.01726485 0.551
-0.022011735 -0.017296186 0.55200005
-0.021064442 -0.017390186 0.55500001
-0.020069584 -0.017452855 0.55700004
-0.019101147 -0.017546855 0.56
-0.018024612 -0.017546855 0.56
-0.017008608 -0.017609522 0.56200004
-0.015956571 -0.017640855 0.56300002
-0.014953529 -0.017734857 0.56600004
-0.013914456 -0.017797524 0.56800002
-0.012867693 -0.017860193 0.57000005
-0.011771936 -0.017860193 0.57000005
-0.046250109 -0.016175404 0.55000001
-0.0451928 -0.016175404 0.55000001
-0.044055242 -0.016145995 0.54900002
-0.042921532 -0.016116586 0.54800004
-0.041715264 -0.016057765 0.546
-0.040665645 -0.016057765 0.546
-0.039616022 -0.016057765 0.546
-0.038566403 -0.016057765 0.546
-0.037585493 -0.016087174 0.54700005
-0.036600742 -0.016116586 0.54800004
-0.035612144 -0.016145995 0.54900002
-0.034493811 -0.016116586 0.54800004
-0.033440348 -0.016116586 0.54800004
-0.03238688 -0.016116586 0.54800004
-0.031333417 -0.016116586 0.54800004
-0.030335205 -0.016145995 0.54900002
-0.029386483 -0.016204813 0.551
-0.028378662 -0.016234223 0.55200005
-0.027317507 -0.016234223 0.55200005
-0.026256353 -0.016234223 0.55200005
-0.025240842 -0.016263634 0.55300003
-0.024134044 -0.016234223 0.55200005
-0.023072889 -0.016234223 0.55200005
-0.022091487 -0.016293043 0.55400002
-0.02114035 -0.016381273 0.55700004
-0.020141646 -0.016440094 0.55900002
-0.019067036 -0.016440094 0.55900002
-0.018056799 -0.016498912 0.56100005
-0.017069137 -0.016587142 0.56400001
-0.016013255 -0.016616551 0.565
-0.014979948 -0.016675372 0.56700003
-0.013963451 -0.016763601 0.57000005
-0.012867693 -0.016763601 0.57000005
-0.011792588 -0.016793009 0.57100004
-0.046166018 -0.015089804 0.54900002
-0.045110628 -0.015089804 0.54900002
-0.044055242 -0.015089804 0.54900002
-0.042921532 -0.015062318 0.54800004
-0.041715264 -0.015007347 0.546
-0.040665645 -0.015007347 0.546
-0.039616022 -0.015007347 0.546
-0.038637035 -0.015034832 0.54700005
-0.037585493 -0.015034832 0.54700005
-0.036600742 -0.015062318 0.54800004
-0.035547279 -0.015062318 0.54800004
-0.034493811 -0.015062318 0.54800004
-0.033440348 -0.015062318 0.54800004
-0.032445982 -0.015089804 0.54900002
-0.031390592 -0.015089804 0.54900002
-0.03039046 -0.01511729 0.55000001
-0.029439816 -0.015172262 0.55200005
-0.028378662 -0.015172262 0.55200005
-0.027317507 -0.015172262 0.55200005
-0.026303919 -0.015199748 0.55300003
-0.025240842 -0.015199748 0.55300003
-0.024177765 -0.015199748 0.55300003
-0.023156486 -0.015227234 0.55400002
-0.02217124 -0.015282206 0.55600005
-0.021216258 -0.015364664 0.55900002
-0.020177679 -0.01539215 0.56
-0.019101147 -0.01539215 0.56
-0.018121174 -0.015474608 0.56300002
-0.017099401 -0.01552958 0.565
-0.016041597 -0.015557067 0.56600004
-0.015006369 -0.015612039 0.56800002
-0.013963451 -0.01566701 0.57000005
-0.012867693 -0.01566701 0.57000005
-0.011771936 -0.01566701 0.57000005
-0.04969161 -0.014135863 0.55300003
-0.0485406 -0.014110301 0.55200005
-0.047307421 -0.014059177 0.55000001
-0.046166018 -0.014033615 0.54900002
-0.045110628 -0.014033615 0.54900002
-0.043974996 -0.014008052 0.54800004
-0.042921532 -0.014008052 0.54800004
-0.041791663 -0.01398249 0.54700005
-0.040814601 -0.014008052 0.54800004
-0.039761137 -0.014008052 0.54800004
-0.038707674 -0.014008052 0.54800004
-0.037654206 -0.014008052 0.54800004
-0.036600742 -0.014008052 0.54800004
-0.035547279 -0.014008052 0.54800004
-0.034493811 -0.014008052 0.54800004
-0.033440348 -0.014008052 0.54800004
-0.03238688 -0.014008052 0.54800004
-0.031390592 -0.014033615 0.54900002
-0.03039046 -0.014059177 0.55000001
-0.029439816 -0.014110301 0.55200005
-0.028378662 -0.014110301 0.55200005
-0.027317507 -0.014110301 0.55200005
-0.026303919 -0.014135863 0.55300003
-0.025286486 -0.014161425 0.55400002
-0.024221485 -0.014161425 0.55400002
-0.023240084 -0.01421255 0.55600005
-0.022211116 -0.014238112 0.55700004
-0.021216258 -0.014289236 0.55900002
-0.020213712 -0.014340361 0.56100005
-0.019135255 -0.014340361 0.56100005
-0.01815336 -0.014417047 0.56400001
-0.017129665 -0.014468171 0.56600004
-0.016069939 -0.014493734 0.56700003
-0.015006369 -0.014519296 0.56800002
-0.013963451 -0.01457042 0.57000005
-0.012867693 -0.01457042 0.57000005
-0.011792588 -0.014595982 0.57100004
-0.050846472 -0.013095615 0.55400002
-0.049781471 -0.013095615 0.55400002
-0.048628535 -0.013071978 0.55300003
-0.047479447 -0.013048339 0.55200005
-0.0463342 -0.013024702 0.551
-0.0451928 -0.013001063 0.55000001
-0.044135489 -0.013001063 0.55000001
-0.042999856 -0.012977424 0.54900002
-0.041944467 -0.012977424 0.54900002
-0.040889081 -0.012977424 0.54900002
-0.039906252 -0.013001063 0.55000001
-0.03884894 -0.013001063 0.55000001
-0.037791632 -0.013001063 0.55000001
-0.036667529 -0.012977424 0.54900002
-0.035612144 -0.012977424 0.54900002
-0.034556754 -0.012977424 0.54900002
-0.033501368 -0.012977424 0.54900002
-0.032445982 -0.012977424 0.54900002
-0.031390592 -0.012977424 0.54900002
-0.030445715 -0.013024702 0.551
-0.029493149 -0.013071978 0.55300003
-0.028430073 -0.013071978 0.55300003
-0.027366996 -0.013071978 0.55300003
-0.026351485 -0.013095615 0.55400002
-0.025332129 -0.013119254 0.55500001
-0.024308927 -0.013142893 0.55600005
-0.023281883 -0.013166531 0.55700004
-0.022290869 -0.013213808 0.55900002
-0.021216258 -0.013213808 0.55900002
-0.020213712 -0.013261084 0.56100005
-0.019169364 -0.013284722 0.56200004
-0.018217733 -0.013379276 0.56600004
-0.017129665 -0.013379276 0.56600004
-0.016069939 -0.013402914 0.56700003
-0.015006369 -0.013426553 0.56800002
-0.013963451 -0.013473828 0.57000005
-0.012890268 -0.013497467 0.57100004
-0.011792588 -0.013497467 0.57100004
-0.052005172 -0.012051522 0.55500001
-0.050938249 -0.012051522 0.55500001
-0.049781471 -0.012029807 0.55400002
-0.048716471 -0.012029807 0.55400002
-0.047479447 -0.011986378 0.55200005
-0.0463342 -0.011964664 0.551
-0.0451928 -0.011942949 0.55000001
-0.044135489 -0.011942949 0.55000001
-0.043156501 -0.011964664 0.551
-0.04209727 -0.011964664 0.551
-0.041038036 -0.011964664 0.551
-0.039978806 -0.011964664 0.551
-0.038919572 -0.011964664 0.551
-0.037860341 -0.011964664 0.551
-0.03673432 -0.011942949 0.55000001
-0.035677012 -0.011942949 0.55000001
-0.034556754 -0.011921234 0.54900002
-0.033501368 -0.011921234 0.54900002
-0.032445982 -0.011921234 0.54900002
-0.031390592 -0.011921234 0.54900002
-0.03039046 -0.011942949 0.55000001
-0.029439816 -0.011986378 0.55200005
-0.028430073 -0.012008092 0.55300003
-0.027366996 -0.012008092 0.55300003
-0.026351485 -0.012029807 0.55400002
-0.025377773 -0.012073236 0.55600005
-0.024352649 -0.01209495 0.55700004
-0.023323681 -0.012116664 0.55800003
-0.022290869 -0.012138379 0.55900002
-0.021292167 -0.012181808 0.56100005
-0.020213712 -0.012181808 0.56100005
-0.019203473 -0.012225237 0.56300002
-0.018217733 -0.01229038 0.56600004
-0.017190194 -0.012333809 0.56800002
-0.016126623 -0.012355523 0.56900001
-0.015059208 -0.012377238 0.57000005
-0.013963451 -0.012377238 0.57000005
-0.012890268 -0.012398953 0.57100004
-0.01181324 -0.012420667 0.57200003
-0.054529205 -0.011062951 0.55900002
-0.053263344 -0.01102337 0.55700004
-0.052098878 -0.011003579 0.55600005
-0.051030032 -0.011003579 0.55600005
-0.049871329 -0.010983788 0.55500001
-0.048716471 -0.010963998 0.55400002
-0.047479447 -0.010924416 0.55200005
-0.046418291 -0.010924416 0.55200005
-0.045274965 -0.010904626 0.551
-0.044295982 -0.010924416 0.55200005
-0.043234829 -0.010924416 0.55200005
-0.042173672 -0.010924416 0.55200005
-0.041186996 -0.010944207 0.55300003
-0.040123921 -0.010944207 0.55300003
-0.038990211 -0.010924416 0.55200005
-0.037929054 -0.010924416 0.55200005
-0.036801111 -0.010904626 0.551
-0.035741877 -0.010904626 0.551
-0.0346197 -0.010884835 0.55000001
-0.033501368 -0.010865045 0.54900002
-0.032445982 -0.010865045 0.54900002
-0.031333417 -0.010845254 0.54800004
-0.030335205 -0.010865045 0.54900002
